# .PCD v.7 - Point Cloud Data file format
VERSION .7
FIELDS x y z
SIZE 4 4 4
TYPE F F F
COUNT 1 1 1
WIDTH 300
HEIGHT 1
POINTS 300
DATA ascii
32.502998 4.209000 0.706000
17.493999 2.112000 -0.580000
17.716999 1.955000 -0.260000
31.652000 3.074000 0.307000
18.990999 1.645000 -0.292000
33.224998 21.506001 0.607000
20.058001 1.337000 -0.690000
21.309999 1.184000 -0.746000
37.245998 1.203000 0.324000
33.908001 0.637000 0.724000
34.057999 0.319000 0.726000
8.019000 -0.139000 -0.488000
7.945000 -0.211000 -0.731000
36.009998 -2.052000 1.200000
32.619999 20.038000 -1.272000
15.325000 -1.011000 -0.388000
56.316002 -4.465000 -0.586000
19.406000 -1.895000 -0.304000
55.248001 -6.222000 1.736000
12.905000 -1.803000 0.186000
52.944000 -8.845000 1.684000
32.381001 18.499001 0.149000
51.188000 -13.747000 1.415000
33.200001 25.459999 -0.886000
33.742001 18.090000 -0.598000
34.221001 18.013000 0.147000
13.087000 -5.657000 -0.679000
12.847000 -5.820000 -0.670000
12.557000 -6.134000 0.010000
31.862000 16.011999 -0.294000
12.295000 -6.236000 -0.650000
31.808001 15.703000 0.747000
31.799999 15.726000 -0.931000
31.966000 15.378000 -0.292000
32.148998 15.151000 -0.933000
27.158001 12.487000 -0.213000
37.504002 16.473000 0.143000
33.314999 14.227000 0.759000
33.397999 14.227000 -0.958000
33.832001 13.761000 0.763000
9.966000 7.993000 -1.296000
39.660000 15.164000 0.141000
33.858002 12.275000 -0.734000
33.970001 11.955000 -0.734000
34.374001 11.674000 -0.742000
36.039001 11.803000 -0.326000
24.798000 7.607000 -0.796000
30.299000 8.256000 -0.614000
44.929001 11.350000 0.135000
8.859000 6.043000 -0.273000
41.907001 10.096000 -0.919000
32.327000 6.747000 0.710000
30.288000 5.926000 0.677000
17.910000 3.359000 -0.050000
71.484001 12.464000 0.940000
18.216999 3.002000 -0.277000
33.063999 22.127001 0.145000
20.075001 3.054000 -0.079000
42.646999 6.106000 -0.398000
17.459000 2.491000 -1.214000
32.102001 3.646000 0.699000
17.510000 1.724000 -0.579000
17.752001 1.564000 -0.260000
65.560997 4.886000 0.414000
18.975000 1.224000 -0.291000
33.198002 20.900999 0.604000
19.899000 0.888000 -0.682000
21.003000 0.704000 -0.731000
36.702000 0.493000 0.323000
33.638000 -0.002000 0.719000
33.768002 -0.320000 0.721000
8.017000 -0.126000 -0.488000
7.927000 -0.198000 -0.729000
36.162998 -2.745000 1.205000
32.507000 19.410000 -1.256000
37.818001 -3.494000 -1.011000
37.817001 -3.617000 -0.591000
55.007999 -6.760000 -0.957000
37.791000 -5.025000 1.077000
12.425000 -2.057000 0.187000
52.351002 -9.819000 1.421000
32.249001 17.889999 0.149000
50.601002 -14.790000 1.409000
33.223000 24.903000 -0.878000
33.591999 17.469999 -0.589000
32.188999 16.299999 0.151000
12.528000 -5.878000 -0.750000
12.257000 -6.059000 -0.739000
12.025000 -6.389000 -0.080000
31.665001 15.417000 -0.288000
11.725000 -6.452000 -0.719000
31.642000 15.130000 0.741000
31.639000 15.094000 -0.918000
31.811001 14.814000 -0.286000
31.957001 14.573000 -0.920000
26.940001 11.979000 -0.208000
37.306999 15.830000 0.144000
33.094002 13.643000 0.752000
33.209999 13.657000 -0.945000
33.721001 13.103000 0.758000
9.953000 8.034000 -1.298000
39.011002 14.286000 0.142000
35.577000 12.271000 -0.777000
35.612999 11.909000 -0.775000
35.823002 11.605000 -0.777000
35.835999 11.116000 -0.320000
36.366001 10.608000 -1.256000
37.591999 9.618000 -0.807000
45.067001 10.634000 0.135000
8.497000 5.829000 -0.314000
41.716999 9.359000 -0.910000
31.899000 6.084000 0.702000
29.938000 5.372000 0.670000
72.500000 12.430000 -0.374000
18.264999 2.863000 0.178000
18.247000 2.538000 -0.276000
33.051998 21.597000 0.145000
20.128000 2.546000 -0.079000
18.216999 2.156000 -0.274000
17.552999 2.112000 -1.217000
31.747000 3.001000 0.693000
17.520000 1.309000 -0.578000
17.736000 1.114000 -0.259000
31.046000 1.593000 0.305000
18.948999 0.745000 -0.290000
33.155998 20.225000 0.600000
19.590000 0.443000 -0.668000
19.761999 0.390000 -0.789000
36.243999 -0.253000 0.321000
33.143002 -0.678000 0.712000
33.285000 -0.943000 0.714000
7.985000 -0.151000 -0.485000
7.911000 -0.222000 -0.727000
35.562000 -3.431000 1.190000
32.432999 18.749001 -1.240000
14.341000 -1.613000 -0.438000
40.341999 -4.822000 -0.647000
54.431000 -7.907000 -0.948000
37.134998 -5.712000 1.064000
12.093000 -2.316000 0.187000
51.703999 -10.880000 1.412000
32.137001 17.238001 0.150000
49.867001 -15.774000 1.400000
33.224998 24.257999 -0.868000
33.462002 16.806000 -0.580000
31.951000 15.502000 0.319000
12.030000 -6.175000 -0.795000
11.752000 -6.339000 -0.782000
11.439000 -6.641000 -0.072000
31.516001 14.797000 -0.282000
11.198000 -6.740000 -0.762000
31.475000 14.508000 0.735000
31.434999 14.455000 -0.903000
31.565001 14.159000 -0.279000
31.761999 13.946000 -0.906000
26.719000 11.431000 -0.202000
37.125000 15.137000 0.144000
32.925999 13.033000 0.746000
33.046001 13.047000 -0.933000
33.439999 12.453000 0.751000
8.454000 6.851000 -1.074000
38.979000 13.584000 0.143000
33.466999 11.014000 -0.714000
33.632999 10.603000 -0.715000
33.890999 10.392000 -0.720000
35.596001 10.431000 -0.314000
24.187000 6.636000 -0.763000
29.718000 7.151000 -0.592000
44.340000 9.729000 0.136000
33.134998 23.312000 -1.092000
41.422001 8.544000 -0.898000
31.679001 5.426000 0.697000
29.587999 4.783000 0.664000
72.282997 10.994000 -0.371000
71.000000 9.752000 0.931000
18.271000 2.075000 -0.275000
32.976002 20.893000 0.330000
20.146000 2.035000 -0.078000
18.230000 1.694000 -0.273000
17.569000 1.667000 -1.215000
31.367001 2.419000 0.686000
17.504999 0.839000 -0.576000
17.674999 0.637000 -0.256000
17.913000 0.590000 0.179000
18.914000 0.268000 -0.289000
33.167000 19.594000 0.596000
18.468000 0.239000 -0.508000
18.364000 0.244000 -0.613000
35.770000 -0.980000 0.320000
32.569000 -1.332000 0.704000
32.696999 -1.594000 0.706000
7.965000 -0.176000 -0.484000
7.886000 -0.246000 -0.724000
34.542999 -4.045000 1.164000
32.316002 18.076000 -1.223000
13.805000 -1.882000 -0.416000
13.780000 -1.893000 -0.241000
53.398998 -9.046000 -0.931000
53.410000 -9.442000 1.699000
11.546000 -2.572000 0.188000
11.205000 -2.587000 0.243000
31.993999 16.583000 0.151000
49.073002 -16.805000 1.390000
33.264000 24.285999 -0.869000
32.277000 15.644000 -0.547000
34.546001 16.028000 0.327000
11.470000 -6.398000 -0.766000
11.168000 -6.580000 -0.754000
10.851000 -6.859000 -0.064000
31.316000 14.166000 -0.276000
10.586000 -6.977000 -0.733000
31.306000 13.897000 0.729000
31.243000 13.836000 -0.889000
31.384001 13.548000 -0.274000
31.551001 13.325000 -0.892000
26.490000 10.892000 -0.196000
36.904999 14.442000 0.145000
32.770000 12.439000 0.741000
32.853001 12.437000 -0.920000
33.202000 11.833000 0.744000
8.155000 6.652000 -1.032000
38.594002 12.773000 0.143000
32.942001 10.214000 -0.695000
33.334000 9.878000 -0.702000
33.625999 9.678000 -0.708000
35.292999 9.743000 -0.308000
23.847000 6.141000 -0.745000
29.349001 6.528000 -0.579000
46.466000 9.283000 0.133000
33.271999 23.643999 -1.102000
41.096001 7.738000 -0.886000
31.305000 4.807000 0.690000
29.239000 4.210000 0.657000
71.970001 9.678000 -0.367000
70.818001 8.483000 0.928000
18.274000 1.582000 -0.274000
32.881001 20.187000 0.328000
20.165001 1.495000 -0.078000
18.240999 1.204000 -0.272000
17.516001 1.191000 -1.207000
30.879999 1.797000 0.678000
17.476999 0.343000 -0.574000
17.672001 0.165000 -0.256000
17.747999 0.166000 0.179000
17.608000 0.078000 -0.164000
32.953999 18.913000 0.591000
17.469000 0.106000 -0.355000
17.462000 0.114000 -0.469000
35.277000 -1.687000 0.318000
31.972000 -1.961000 0.695000
32.085999 -2.272000 0.697000
7.940000 -0.200000 -0.482000
7.852000 -0.270000 -0.720000
33.443001 -4.610000 1.136000
32.226002 17.497999 -1.210000
13.328000 -2.137000 -0.397000
13.353000 -2.155000 -0.229000
52.535000 -10.178000 -0.917000
36.198002 -7.156000 1.223000
11.041000 -2.790000 0.189000
10.691000 -2.806000 0.242000
31.864000 16.010000 0.151000
47.835999 -17.650999 1.370000
33.433998 24.815001 -0.881000
32.081001 14.932000 -0.537000
34.393002 15.305000 0.325000
10.872000 -6.638000 -0.737000
10.580000 -6.808000 -0.725000
10.250000 -7.080000 -0.056000
31.153000 13.506000 -0.270000
9.980000 -7.179000 -0.704000
31.086000 13.219000 0.722000
31.032000 13.221000 -0.875000
31.208000 12.894000 -0.268000
31.349001 12.721000 -0.878000
26.208000 10.393000 -0.190000
36.714001 13.706000 0.146000
32.616001 11.798000 0.735000
32.608002 11.762000 -0.905000
32.966999 11.169000 0.737000
9.261000 7.622000 -1.204000
38.459000 11.995000 0.144000
32.707001 9.580000 -0.684000
33.111000 9.192000 -0.691000
33.303001 9.021000 -0.695000
35.047001 9.026000 -0.302000
23.458000 5.610000 -0.726000
29.017000 5.977000 -0.568000
40.528000 7.367000 0.143000
33.352001 24.177000 -1.114000
39.643002 6.757000 -0.844000
30.926001 4.204000 0.682000
28.830999 3.644000 0.650000
71.793999 8.280000 -0.364000
70.639999 7.226000 0.925000
18.290001 1.092000 -0.273000
32.787998 19.497999 0.327000
20.082001 0.950000 -0.076000
18.200001 0.714000 -0.270000
17.466000 0.720000 -1.201000
