# .PCD v.7 - Point Cloud Data file format
VERSION .7
FIELDS x y z
SIZE 4 4 4
TYPE F F F
COUNT 1 1 1
WIDTH 300
HEIGHT 1
POINTS 300
DATA ascii
32.509998 4.149000 1.109000
36.339001 -0.895000 -0.557000
19.063999 2.919000 -0.199000
33.854000 0.555000 -0.269000
33.082001 21.497999 1.107000
8.162000 -0.211000 -0.259000
36.702000 -1.288000 -1.212000
38.139999 1.748000 1.500000
35.193001 0.819000 1.010000
13.103000 0.049000 0.248000
13.103000 0.049000 0.248000
19.351999 -0.807000 -1.226000
19.351999 -0.807000 -1.226000
35.743000 -0.636000 0.568000
38.285999 -2.814000 -0.097000
55.848999 -5.088000 -0.236000
13.181000 0.060000 0.340000
38.102001 -3.426000 0.790000
32.353001 18.610001 -0.088000
32.368999 18.780001 0.585000
12.990000 -1.820000 0.248000
33.082001 22.521000 -0.355000
32.890999 17.917999 0.325000
8.837000 6.055000 0.122000
27.305000 14.655000 -0.991000
8.834000 5.994000 -0.780000
32.890999 17.917999 0.325000
8.845000 6.043000 -0.209000
13.985000 9.725000 0.072000
31.921000 16.101999 -0.728000
9.023000 6.202000 -0.081000
31.780001 15.888000 1.411000
31.826000 15.679000 -0.720000
31.929001 15.481000 0.151000
31.875000 15.457000 -0.291000
33.573002 14.759000 0.578000
33.150002 14.684000 -0.303000
33.418999 14.131000 0.574000
33.477001 14.031000 -1.195000
33.723000 13.762000 -1.200000
33.908001 13.652000 -1.205000
34.575001 13.169000 -1.222000
43.908001 15.771000 0.134000
43.782001 15.547000 -0.160000
36.120998 12.334000 -0.329000
36.028000 11.851000 -0.093000
24.697001 7.588000 -1.094000
37.506001 10.512000 -1.529000
31.030001 7.955000 0.938000
30.775000 7.984000 -1.022000
42.709999 10.129000 -0.715000
41.939999 9.600000 -0.133000
32.602001 21.851000 0.805000
30.299000 6.006000 -0.987000
71.176003 12.198000 1.853000
8.171000 0.030000 -0.400000
32.972000 21.636999 0.606000
33.854000 0.555000 -0.269000
9.023000 6.202000 -0.081000
33.138000 22.389999 -0.633000
32.139999 3.590000 1.097000
8.245000 -0.150000 -0.211000
19.111000 2.436000 -0.199000
34.103001 0.131000 -0.272000
33.147999 20.879999 1.101000
8.195000 -0.225000 -0.261000
8.118000 -0.235000 -0.357000
62.416000 1.700000 2.320000
34.879002 0.154000 1.003000
12.676000 -0.191000 0.247000
12.676000 -0.191000 0.247000
8.025000 -0.286000 -0.588000
8.025000 -0.286000 -0.588000
35.334000 -1.296000 0.565000
14.769000 -1.326000 -0.106000
55.223999 -6.130000 -0.573000
34.021000 -0.652000 0.983000
37.591999 -4.109000 0.589000
32.261002 18.021000 -0.085000
32.291000 18.129000 0.581000
12.260000 -1.990000 0.187000
33.152000 22.645000 -0.357000
32.987999 17.304001 0.324000
8.506000 5.868000 0.125000
26.882000 13.995000 -0.964000
8.477000 5.815000 -0.809000
32.987999 17.304001 0.324000
8.517000 5.877000 -0.195000
13.746000 9.592000 0.074000
31.742001 15.514000 -0.717000
13.774000 9.611000 -0.147000
31.649000 15.266000 1.397000
31.638000 15.095000 -0.709000
31.745001 14.902000 0.152000
31.712999 14.890000 -0.286000
33.388000 14.180000 0.574000
32.972000 14.051000 -0.297000
33.224998 13.498000 0.570000
33.259998 13.451000 -1.179000
33.509998 13.186000 -1.184000
33.672001 13.006000 -1.188000
34.480999 12.639000 -1.212000
43.735001 15.014000 0.135000
43.730999 14.760000 -0.158000
35.834000 11.611000 -0.322000
35.723999 11.255000 -0.089000
24.365000 7.068000 -1.070000
37.296001 9.825000 -1.512000
38.158001 9.152000 1.102000
30.472000 7.447000 -1.005000
41.793999 9.290000 -0.693000
41.679001 8.854000 -0.130000
32.582001 21.322001 0.800000
30.221001 5.450000 -0.980000
71.061996 11.032000 1.846000
8.185000 0.043000 -0.401000
32.959000 21.114000 0.603000
34.103001 0.131000 -0.272000
13.774000 9.611000 -0.147000
33.234001 22.683001 -0.639000
31.719999 2.990000 1.084000
8.239000 -0.189000 -0.210000
19.132000 1.952000 -0.198000
34.229000 -0.353000 -0.274000
33.034000 20.225000 1.273000
8.194000 -0.264000 -0.261000
8.087000 -0.260000 -0.355000
62.002998 0.422000 2.306000
34.404999 -0.497000 0.992000
12.203000 -0.451000 0.245000
12.203000 -0.451000 0.245000
7.997000 -0.298000 -0.586000
7.997000 -0.298000 -0.586000
34.789001 -1.988000 0.559000
14.321000 -1.604000 -0.097000
54.560001 -7.274000 -0.566000
33.445000 -1.378000 0.971000
54.505001 -7.340000 1.044000
29.156000 15.753000 -0.055000
32.191002 17.479000 0.577000
12.093000 -2.316000 0.187000
13.520000 9.309000 -0.223000
32.834999 16.636999 0.323000
33.441002 23.650999 0.831000
26.677999 13.412000 -0.947000
12.200000 8.519000 -1.167000
32.834999 16.636999 0.323000
33.178001 23.417000 -0.646000
33.410999 23.600000 0.336000
31.582001 14.886000 -0.706000
33.070999 23.438000 -0.363000
30.412001 14.084000 1.342000
31.481001 14.477000 -0.699000
31.579000 14.282000 0.153000
31.496000 14.248000 -0.279000
33.140999 13.525000 0.569000
32.821999 13.382000 -0.291000
33.041000 12.822000 0.565000
33.033001 12.819000 -1.162000
33.257000 12.546000 -1.166000
33.521999 12.346000 -1.173000
34.053001 11.938000 -1.187000
43.555000 14.191000 0.135000
43.481998 13.844000 -0.154000
35.556999 10.846000 -0.316000
35.509998 10.517000 -0.086000
24.243000 6.662000 -1.059000
37.048000 9.078000 -1.493000
30.421000 6.737000 0.918000
30.115000 6.860000 -0.987000
41.488998 8.541000 -0.683000
41.313000 8.033000 -0.126000
32.985001 20.997999 0.803000
29.862000 4.902000 -0.963000
70.722000 9.618000 1.834000
8.167000 0.030000 -0.400000
32.868999 20.478001 0.599000
34.229000 -0.353000 -0.274000
33.070999 23.438000 -0.363000
13.500000 9.266000 -0.320000
31.266001 2.403000 1.070000
32.550999 -1.465000 -0.645000
19.138000 1.437000 -0.197000
8.249000 -0.076000 -0.114000
32.981998 19.556999 1.262000
32.536999 -1.410000 -0.838000
32.575001 -1.380000 -1.247000
36.790001 -0.512000 1.453000
33.799000 -1.180000 0.979000
11.792000 -0.714000 0.244000
11.792000 -0.714000 0.244000
7.956000 -0.321000 -0.582000
7.956000 -0.321000 -0.582000
34.387001 -2.671000 0.556000
13.764000 -1.870000 -0.086000
53.957001 -8.319000 -0.560000
34.647999 -2.245000 0.999000
53.773998 -8.536000 1.036000
29.006001 15.147000 -0.052000
28.997000 15.215000 0.538000
11.546000 -2.572000 0.188000
13.175000 9.010000 -0.211000
32.713001 15.998000 0.322000
33.493000 24.004999 0.835000
26.493000 12.853000 -0.931000
12.891000 9.122000 -1.251000
33.361000 16.184000 0.324000
7.843000 5.517000 -0.223000
7.867000 5.540000 0.003000
31.416000 14.268000 -0.695000
7.837000 5.515000 -0.165000
30.299000 13.458000 1.330000
31.313999 13.867000 -0.688000
31.391001 13.666000 0.153000
31.308001 13.632000 -0.273000
33.033001 12.938000 0.566000
32.664001 12.663000 -0.286000
32.835999 12.152000 0.561000
32.782001 12.191000 -1.144000
33.012001 11.923000 -1.149000
33.279999 11.667000 -1.155000
33.787998 11.311000 -1.170000
43.370998 13.306000 0.136000
37.700001 11.293000 -0.104000
24.791000 7.088000 -0.156000
35.216000 9.891000 -0.082000
23.740999 6.085000 -1.027000
36.745998 8.334000 -1.472000
37.542000 7.642000 1.081000
29.806999 6.250000 -0.970000
41.166000 7.736000 -0.673000
41.000999 7.240000 -0.122000
32.981998 20.419001 0.798000
29.157000 4.269000 -0.932000
70.540001 8.242000 1.826000
8.147000 0.004000 -0.399000
32.842999 19.893000 0.595000
8.249000 -0.076000 -0.114000
7.837000 5.515000 -0.165000
33.207001 22.818001 -0.640000
30.837999 1.835000 1.057000
29.222000 -1.448000 -0.732000
19.135000 0.924000 -0.197000
8.213000 -0.128000 -0.113000
32.882999 18.945000 1.251000
21.242001 -1.091000 -0.616000
28.782000 -1.760000 -1.079000
35.653000 -1.225000 1.415000
32.723000 -1.812000 0.955000
11.226000 -0.944000 0.242000
11.226000 -0.944000 0.242000
7.913000 -0.345000 -0.578000
7.913000 -0.345000 -0.578000
33.745998 -3.316000 0.550000
13.340000 -2.132000 -0.078000
53.359001 -9.346000 -0.554000
11.305000 -0.931000 0.322000
53.143002 -9.724000 1.030000
28.830000 14.597000 -0.049000
28.812000 14.601000 0.534000
11.041000 -2.790000 0.189000
33.088001 22.298000 -0.354000
32.643002 15.334000 0.320000
33.417999 24.350000 0.837000
26.270000 12.339000 -0.915000
11.492000 8.216000 -1.097000
33.578999 15.580000 0.323000
33.353001 24.253000 -0.660000
7.491000 5.365000 0.012000
31.232000 13.597000 -0.684000
7.472000 5.345000 -0.150000
30.094999 12.860000 1.316000
31.094999 13.247000 -0.677000
31.188000 13.056000 0.154000
31.153000 12.986000 -0.268000
36.455002 13.625000 0.600000
32.445999 11.996000 -0.279000
32.574001 11.534000 0.556000
32.556000 11.527000 -1.127000
32.771999 11.258000 -1.132000
33.022999 11.054000 -1.138000
33.448002 10.674000 -1.149000
43.176998 12.508000 0.137000
41.459999 11.640000 -0.134000
24.448999 6.576000 -0.149000
34.949001 9.168000 -0.079000
23.368999 5.599000 -1.003000
36.424000 7.602000 -1.451000
29.563999 5.482000 0.893000
29.391001 5.682000 -0.950000
40.950001 6.899000 -0.666000
40.723000 6.402000 -0.119000
32.863998 19.709000 0.791000
28.854000 3.671000 -0.917000
70.094002 6.742000 1.812000
8.105000 -0.047000 -0.396000
32.742001 19.204000 0.591000
8.213000 -0.128000 -0.113000
7.472000 5.345000 -0.150000
33.165001 22.257000 -0.632000
