# .PCD v.7 - Point Cloud Data file format
VERSION .7
FIELDS x y z
SIZE 4 4 4
TYPE F F F
COUNT 1 1 1
WIDTH 1667
HEIGHT 1
POINTS 1667
DATA ascii
30.371000 11.372000 1.306000
31.256001 13.942000 1.366000
32.460999 17.066000 1.449000
9.855000 -1.593000 0.483000
32.848000 -2.855000 1.115000
28.698000 3.163000 1.002000
32.541000 8.891000 1.136000
30.632999 10.964000 1.103000
31.424999 13.645000 1.150000
32.578999 16.972000 1.218000
30.764999 -3.605000 0.914000
29.794001 0.095000 0.661000
35.908001 5.100000 1.034000
32.053001 9.465000 0.969000
30.527000 11.687000 0.953000
31.461000 14.671000 1.162000
32.056999 17.542000 1.213000
39.950001 0.746000 0.816000
35.956001 4.998000 0.760000
32.575001 8.910000 0.721000
30.427999 11.333000 0.702000
31.575001 14.795000 0.738000
32.465000 17.513000 0.769000
36.133999 4.777000 0.576000
32.367001 8.999000 0.547000
30.389999 11.299000 0.535000
31.271000 13.745000 0.552000
32.582001 17.049999 0.767000
39.243000 4.490000 0.331000
32.361000 8.886000 0.313000
25.347000 8.844000 0.291000
31.895000 13.481000 0.316000
32.182999 15.991000 0.320000
36.112999 4.875000 0.150000
34.376999 6.805000 0.152000
36.034000 11.611000 0.148000
33.493000 13.347000 0.151000
32.250999 15.889000 0.151000
39.542000 4.258000 -0.108000
34.304001 6.787000 -0.070000
31.818001 9.644000 -0.056000
30.528999 11.776000 -0.052000
31.606001 14.893000 -0.070000
32.556999 17.719999 -0.086000
35.893002 5.020000 -0.302000
34.174000 6.934000 -0.283000
31.874001 9.555000 -0.261000
30.402000 11.456000 -0.250000
31.617001 15.088000 -0.286000
32.438999 17.534000 -0.311000
33.398998 26.804001 -0.395000
35.505001 5.585000 -0.549000
33.952000 7.720000 -0.525000
31.896999 9.942000 -0.495000
30.603001 11.860000 -0.483000
31.531000 14.617000 -0.524000
32.473000 17.410000 -0.567000
33.467999 27.007999 -0.697000
34.608002 6.456000 -0.713000
33.344002 8.639000 -0.694000
25.436001 8.945000 -0.498000
31.405001 13.263000 -0.684000
32.060001 16.172001 -0.732000
33.497002 26.857000 -0.695000
27.636000 2.023000 -0.683000
34.250000 6.779000 -0.913000
31.930000 9.408000 -0.861000
30.649000 10.894000 -0.837000
31.259001 13.960000 -0.891000
33.494999 26.774000 -1.168000
33.449001 27.083000 -1.173000
33.516998 7.527000 -1.120000
32.069000 9.296000 -1.083000
30.423000 10.986000 -1.043000
33.494999 26.774000 -1.168000
28.337000 4.220000 -1.071000
22.301001 4.206000 -0.936000
22.500000 5.747000 -1.110000
8.241000 -0.130000 -0.557000
7.994000 -0.298000 -0.388000
17.722000 -0.210000 -1.017000
15.147000 11.959000 -1.221000
8.153000 -0.103000 -0.500000
8.234000 -0.111000 -0.609000
7.904000 -0.281000 -0.433000
11.767000 9.214000 -1.084000
8.223000 -0.155000 -0.555000
7.835000 -0.282000 -0.520000
7.887000 -0.228000 -0.623000
7.927000 -0.236000 -0.680000
7.825000 -0.604000 -0.764000
7.881000 -0.499000 -0.811000
7.838000 -0.311000 -0.804000
8.104000 -0.465000 -0.988000
8.256000 -0.215000 -1.068000
29.794001 0.095000 0.661000
17.684000 -0.320000 -0.583000
17.615999 -0.447000 -0.360000
17.441999 -1.206000 0.262000
19.135000 -0.579000 -0.196000
32.801998 17.018000 0.581000
17.615999 -0.447000 -0.360000
17.658001 -0.383000 -0.477000
20.400999 -2.477000 0.175000
30.330999 -3.734000 0.673000
30.407000 -4.083000 0.674000
7.863000 -0.397000 -0.476000
7.773000 -0.438000 -0.712000
33.647999 -6.815000 1.152000
31.782000 15.548000 -1.160000
37.324001 -8.630000 -1.022000
51.166000 -12.999000 -0.534000
15.859000 -4.341000 -0.322000
50.167999 -13.871000 1.969000
9.552000 -3.452000 0.191000
9.133000 -3.405000 0.238000
31.372999 14.130000 0.153000
45.394001 -20.415001 1.342000
33.494999 26.791000 -0.914000
31.440001 13.043000 -0.509000
30.466000 11.931000 0.310000
9.107000 -7.251000 -0.656000
8.880000 -7.372000 -0.649000
0.000000 0.000000 0.000000
30.504999 11.714000 -0.252000
0.000000 0.000000 0.000000
30.422001 11.440000 0.702000
30.410999 11.514000 -0.836000
30.507999 11.114000 -0.250000
30.649000 10.894000 -0.837000
25.400000 8.844000 -0.171000
36.034000 11.611000 0.148000
32.201000 10.127000 0.721000
31.851999 9.876000 -0.863000
32.030998 9.359000 0.715000
0.000000 0.000000 0.000000
37.974998 9.720000 0.330000
31.833000 7.557000 -0.648000
32.382999 7.206000 -0.660000
32.382999 7.206000 -0.660000
34.174000 6.934000 -0.283000
34.450001 6.537000 -0.918000
27.891001 4.251000 -0.531000
39.508999 5.083000 0.145000
33.535000 26.038000 -1.155000
38.423000 4.514000 -0.804000
29.917999 2.498000 0.664000
27.663000 2.049000 0.630000
70.931999 4.362000 -0.354000
69.990997 3.509000 0.915000
17.792999 -0.421000 -0.259000
32.487999 17.566000 0.323000
19.077000 -0.598000 -0.062000
17.792999 -0.421000 -0.259000
8.234000 -0.111000 -0.609000
1.000000 1.000000 1.000000
1.000000 1.000000 1.000000
1.000000 1.000000 1.000000
1.000000 1.000000 1.000000
1.000000 1.000000 1.000000
1.000000 1.000000 1.000000
1.000000 1.000000 1.000000
1.000000 1.000000 1.000000
1.000000 1.000000 1.000000
1.000000 1.000000 1.000000
1.000000 1.000000 1.000000
1.000000 1.000000 1.000000
1.000000 1.000000 1.000000
1.000000 1.000000 1.000000
1.000000 1.000000 1.000000
1.000000 1.000000 1.000000
1.000000 1.000000 1.000000
1.000000 1.000000 1.000000
1.000000 1.000000 1.000000
1.000000 1.000000 1.000000
1.000000 1.000000 1.000000
1.000000 1.000000 1.000000
1.000000 1.000000 1.000000
1.000000 1.000000 1.000000
1.000000 1.000000 1.000000
1.000000 1.000000 1.000000
1.000000 1.000000 1.000000
1.000000 1.000000 1.000000
1.000000 1.000000 1.000000
1.000000 1.000000 1.000000
1.000000 1.000000 1.000000
1.000000 1.000000 1.000000
1.000000 1.000000 1.000000
1.000000 1.000000 1.000000
1.000000 1.000000 1.000000
1.000000 1.000000 1.000000
1.000000 1.000000 1.000000
1.000000 1.000000 1.000000
1.000000 1.000000 1.000000
1.000000 1.000000 1.000000
1.000000 1.000000 1.000000
1.000000 1.000000 1.000000
1.000000 1.000000 1.000000
1.000000 1.000000 1.000000
1.000000 1.000000 1.000000
1.000000 1.000000 1.000000
1.000000 1.000000 1.000000
1.000000 1.000000 1.000000
1.000000 1.000000 1.000000
1.000000 1.000000 1.000000
1.000000 1.000000 1.000000
1.000000 1.000000 1.000000
1.000000 1.000000 1.000000
1.000000 1.000000 1.000000
1.000000 1.000000 1.000000
1.000000 1.000000 1.000000
1.000000 1.000000 1.000000
1.000000 1.000000 1.000000
1.000000 1.000000 1.000000
1.000000 1.000000 1.000000
9.241000 -1.750000 0.527000
25.973000 0.651000 1.088000
35.476002 4.433000 1.418000
33.915001 6.255000 1.375000
31.490999 9.100000 1.318000
30.160999 10.863000 1.293000
31.084000 13.399000 1.354000
32.275002 16.454000 1.434000
9.392000 -1.776000 0.471000
32.312000 -3.474000 1.102000
28.903000 2.681000 1.006000
32.216000 8.315000 1.123000
30.347000 10.434000 1.090000
31.066999 12.971000 1.134000
32.426998 16.379000 1.207000
30.198000 -4.165000 0.903000
29.087999 -0.500000 0.650000
35.424000 4.465000 1.021000
31.745001 8.834000 0.959000
30.343000 11.182000 0.945000
31.302000 14.062000 1.152000
32.042000 17.014000 1.205000
39.522999 -0.006000 0.809000
35.577999 4.321000 0.753000
32.245998 8.278000 0.714000
30.157000 10.750000 0.695000
31.358000 14.156000 0.731000
32.358002 16.934000 0.763000
35.669998 4.146000 0.570000
32.058998 8.373000 0.542000
30.136000 10.669000 0.530000
31.027000 13.118000 0.548000
32.453999 16.403000 0.761000
38.962002 3.716000 0.330000
32.035999 8.312000 0.311000
25.042000 8.343000 0.290000
31.695000 12.872000 0.315000
32.021000 15.288000 0.319000
35.744999 4.198000 0.151000
34.014000 6.179000 0.153000
31.440001 9.638000 0.156000
30.388000 11.503000 0.156000
32.022999 15.217000 0.152000
39.361000 3.552000 -0.106000
34.022999 6.122000 -0.067000
31.503000 9.065000 -0.053000
30.329000 11.264000 -0.049000
31.393999 14.255000 -0.066000
32.367001 17.028000 -0.082000
35.537998 4.346000 -0.296000
33.848999 6.261000 -0.277000
31.598000 8.934000 -0.255000
30.134001 10.871000 -0.244000
31.430000 14.456000 -0.279000
32.347000 16.962999 -0.306000
33.634998 27.962999 -0.408000
35.126999 4.905000 -0.539000
32.610001 6.826000 -0.493000
31.584000 9.357000 -0.486000
30.351000 11.272000 -0.474000
31.391001 14.075000 -0.516000
32.299999 16.735001 -0.558000
33.639999 28.118999 -0.714000
34.194000 5.824000 -0.700000
33.098999 8.078000 -0.684000
25.132000 8.440000 -0.487000
31.181999 12.652000 -0.673000
31.830999 15.496000 -0.718000
33.679001 27.972000 -0.713000
27.430000 1.445000 -0.675000
33.928001 6.108000 -0.899000
31.629000 8.835000 -0.847000
30.386000 10.320000 -0.823000
31.031000 13.336000 -0.877000
33.693001 27.899000 -1.196000
33.639999 28.034000 -1.197000
33.075001 6.938000 -1.099000
31.790001 8.730000 -1.067000
30.158001 10.410000 -1.026000
33.693001 27.899000 -1.196000
27.766001 3.647000 -1.042000
21.985001 3.825000 -0.917000
22.160000 5.292000 -1.085000
8.197000 -0.232000 -0.553000
7.979000 -0.398000 -0.387000
8.158000 -0.214000 -0.453000
12.537000 10.249000 -0.992000
8.207000 -0.193000 -0.505000
8.273000 -0.203000 -0.612000
7.855000 -0.366000 -0.430000
12.561000 10.193000 -1.190000
8.204000 -0.258000 -0.554000
7.803000 -0.379000 -0.517000
7.858000 -0.314000 -0.621000
7.897000 -0.322000 -0.677000
7.797000 -0.701000 -0.762000
7.875000 -0.598000 -0.811000
7.832000 -0.385000 -0.804000
8.359000 -0.571000 -1.026000
7.941000 -0.306000 -1.020000
29.087999 -0.500000 0.650000
8.062000 -0.224000 -0.296000
17.737000 -0.673000 -0.364000
42.224998 -4.067000 0.853000
18.312000 -0.813000 -0.179000
32.485001 16.339001 0.575000
17.737000 -0.673000 -0.364000
17.778000 -0.609000 -0.482000
20.155001 -3.060000 0.175000
29.829000 -4.292000 0.666000
29.865000 -4.633000 0.667000
7.848000 -0.482000 -0.475000
7.746000 -0.510000 -0.709000
33.008999 -7.389000 1.138000
25.447001 12.001000 -0.881000
33.792000 -8.541000 -0.911000
50.167000 -14.182000 -0.525000
15.081000 -4.563000 -0.300000
48.840000 -14.918000 1.936000
8.996000 -3.641000 0.191000
45.478001 -19.625999 1.570000
31.164000 13.567000 0.154000
44.537998 -21.305000 1.333000
33.715000 27.937000 -0.937000
31.215000 12.436000 -0.499000
30.282000 11.368000 0.309000
0.000000 0.000000 0.000000
0.000000 0.000000 0.000000
0.000000 0.000000 0.000000
30.212000 11.114000 -0.246000
0.000000 0.000000 0.000000
30.153000 10.856000 0.695000
30.170000 10.939000 -0.823000
30.240000 10.481000 -0.243000
30.386000 10.320000 -0.823000
25.080999 8.380000 -0.165000
31.440001 9.638000 0.156000
31.903999 9.485000 0.714000
31.562000 9.300000 -0.849000
31.730000 8.787000 0.709000
0.000000 0.000000 0.000000
38.137001 9.063000 0.330000
33.687000 7.386000 -0.695000
34.119999 7.089000 -0.704000
34.119999 7.089000 -0.704000
33.848999 6.261000 -0.277000
34.060001 5.911000 -0.902000
27.497999 3.706000 -0.519000
39.080002 4.343000 0.146000
33.525002 26.798000 -1.169000
37.948002 3.795000 -0.790000
29.593000 1.910000 0.659000
27.253000 1.546000 0.623000
70.622002 3.008000 -0.351000
69.664001 2.177000 0.911000
17.737000 -0.673000 -0.364000
32.310001 16.884001 0.322000
18.260000 -0.832000 -0.051000
17.737000 -0.673000 -0.364000
8.273000 -0.203000 -0.612000
1.000000 1.000000 1.000000
1.000000 1.000000 1.000000
1.000000 1.000000 1.000000
1.000000 1.000000 1.000000
1.000000 1.000000 1.000000
1.000000 1.000000 1.000000
1.000000 1.000000 1.000000
1.000000 1.000000 1.000000
1.000000 1.000000 1.000000
1.000000 1.000000 1.000000
1.000000 1.000000 1.000000
1.000000 1.000000 1.000000
1.000000 1.000000 1.000000
1.000000 1.000000 1.000000
1.000000 1.000000 1.000000
1.000000 1.000000 1.000000
1.000000 1.000000 1.000000
1.000000 1.000000 1.000000
1.000000 1.000000 1.000000
1.000000 1.000000 1.000000
1.000000 1.000000 1.000000
1.000000 1.000000 1.000000
1.000000 1.000000 1.000000
1.000000 1.000000 1.000000
1.000000 1.000000 1.000000
1.000000 1.000000 1.000000
1.000000 1.000000 1.000000
1.000000 1.000000 1.000000
1.000000 1.000000 1.000000
1.000000 1.000000 1.000000
1.000000 1.000000 1.000000
1.000000 1.000000 1.000000
1.000000 1.000000 1.000000
1.000000 1.000000 1.000000
1.000000 1.000000 1.000000
1.000000 1.000000 1.000000
1.000000 1.000000 1.000000
1.000000 1.000000 1.000000
1.000000 1.000000 1.000000
1.000000 1.000000 1.000000
1.000000 1.000000 1.000000
1.000000 1.000000 1.000000
1.000000 1.000000 1.000000
1.000000 1.000000 1.000000
1.000000 1.000000 1.000000
1.000000 1.000000 1.000000
1.000000 1.000000 1.000000
1.000000 1.000000 1.000000
1.000000 1.000000 1.000000
1.000000 1.000000 1.000000
1.000000 1.000000 1.000000
1.000000 1.000000 1.000000
1.000000 1.000000 1.000000
1.000000 1.000000 1.000000
1.000000 1.000000 1.000000
1.000000 1.000000 1.000000
1.000000 1.000000 1.000000
1.000000 1.000000 1.000000
1.000000 1.000000 1.000000
1.000000 1.000000 1.000000
8.802000 -1.942000 0.514000
25.688999 0.119000 1.078000
35.130001 3.774000 1.404000
33.508999 5.692000 1.358000
31.193001 8.538000 1.303000
29.881001 10.287000 1.278000
30.829000 12.775000 1.338000
32.091000 15.918000 1.420000
8.895000 -1.943000 0.459000
31.929001 -4.094000 1.093000
28.663000 2.205000 0.999000
31.896999 7.754000 1.111000
30.091999 9.873000 1.079000
30.771000 12.396000 1.120000
32.233002 15.839000 1.195000
29.618999 -4.704000 0.891000
28.871000 -0.996000 0.647000
35.058998 3.804000 1.011000
31.459000 8.276000 0.949000
30.045000 10.592000 0.934000
31.132999 13.519000 1.141000
32.090000 16.590000 1.201000
39.084999 -0.681000 0.802000
35.125000 3.707000 0.745000
31.915001 7.714000 0.707000
29.868999 10.174000 0.688000
31.149000 13.652000 0.725000
32.202000 16.403999 0.757000
35.280998 3.484000 0.565000
31.757000 7.816000 0.538000
29.874001 10.103000 0.526000
30.865999 12.594000 0.544000
32.286999 15.813000 0.755000
38.702000 3.017000 0.329000
31.725000 7.754000 0.310000
24.747000 7.901000 0.289000
31.253000 12.238000 0.313000
31.819000 14.643000 0.317000
35.300999 3.584000 0.151000
33.679001 5.518000 0.154000
31.094999 9.053000 0.156000
30.150999 10.928000 0.157000
31.846001 14.645000 0.152000
38.849998 2.830000 -0.101000
33.699001 5.465000 -0.063000
31.211000 8.506000 -0.049000
30.042000 10.677000 -0.045000
31.226999 13.709000 -0.063000
32.223000 16.503000 -0.079000
35.183998 3.686000 -0.290000
33.477001 5.704000 -0.270000
31.295000 8.372000 -0.249000
29.912001 10.367000 -0.238000
31.247000 13.899000 -0.274000
32.181000 16.426001 -0.301000
33.433998 22.896999 -0.114000
34.855999 4.366000 -0.531000
31.820000 6.193000 -0.475000
31.295000 8.793000 -0.477000
30.121000 10.758000 -0.466000
31.186001 13.574000 -0.508000
32.162998 16.153999 -0.550000
33.363998 21.730000 -0.353000
33.896999 5.172000 -0.689000
32.768002 7.508000 -0.672000
24.782000 7.977000 -0.474000
30.936001 12.102000 -0.662000
31.629000 14.908000 -0.707000
33.199001 21.474001 -0.349000
26.980000 0.955000 -0.660000
33.544998 5.551000 -0.884000
31.341999 8.227000 -0.833000
30.079000 9.796000 -0.808000
30.820999 12.847000 -0.864000
33.243999 21.278000 -0.825000
33.300999 21.611000 -0.831000
32.603001 6.359000 -1.077000
31.495001 8.172000 -1.050000
29.968000 9.873000 -1.012000
33.243999 21.278000 -0.825000
27.365999 3.115000 -1.021000
21.579000 3.440000 -0.894000
21.535000 4.823000 -1.045000
8.204000 -0.322000 -0.554000
7.971000 -0.486000 -0.387000
8.124000 -0.315000 -0.451000
14.508000 10.695000 -1.038000
8.208000 -0.297000 -0.505000
8.251000 -0.306000 -0.611000
7.865000 -0.465000 -0.431000
11.190000 8.397000 -1.002000
8.181000 -0.347000 -0.552000
7.786000 -0.464000 -0.516000
7.828000 -0.411000 -0.618000
7.890000 -0.421000 -0.677000
7.773000 -0.785000 -0.760000
7.860000 -0.684000 -0.810000
7.808000 -0.470000 -0.801000
8.359000 -0.677000 -1.027000
7.913000 -0.392000 -1.016000
28.871000 -0.996000 0.647000
28.917000 -1.384000 -0.912000
17.832001 -0.986000 -0.367000
41.504002 -4.855000 0.843000
8.262000 -0.479000 -0.115000
32.187000 15.747000 0.569000
17.832001 -0.986000 -0.367000
28.836000 -1.429000 -0.720000
31.702999 -5.810000 0.308000
29.302999 -4.828000 0.659000
29.341000 -5.167000 0.661000
7.831000 -0.580000 -0.474000
7.728000 -0.594000 -0.708000
32.490002 -8.081000 1.129000
25.211000 11.504000 -0.864000
33.224998 -9.123000 -0.898000
48.931999 -15.509000 -0.514000
14.552000 -4.830000 -0.286000
47.943001 -15.889000 1.917000
8.463000 -3.804000 0.192000
44.515999 -21.407000 1.566000
30.938999 12.951000 0.155000
43.852001 -22.261999 1.328000
33.264000 21.351000 -0.624000
30.971001 11.890000 -0.491000
30.117001 10.876000 0.308000
0.000000 0.000000 0.000000
0.000000 0.000000 0.000000
0.000000 0.000000 0.000000
30.007999 10.612000 -0.241000
0.000000 0.000000 0.000000
29.921000 10.349000 0.689000
29.854000 10.402000 -0.808000
30.014999 9.930000 -0.238000
30.079000 9.796000 -0.808000
24.778999 7.892000 -0.159000
31.094999 9.053000 0.156000
31.249001 8.813000 0.702000
31.264999 8.734000 -0.835000
31.454000 8.181000 0.702000
0.000000 0.000000 0.000000
37.283001 8.306000 0.327000
33.405998 6.830000 -0.684000
33.792999 6.468000 -0.693000
33.792999 6.468000 -0.693000
33.477001 5.704000 -0.270000
33.742001 5.257000 -0.889000
27.115999 3.178000 -0.507000
38.727001 3.627000 0.146000
33.330002 27.775999 -1.184000
37.506001 3.097000 -0.777000
29.177999 1.378000 0.652000
26.844000 1.059000 0.616000
70.222000 1.777000 -0.348000
69.248001 0.967000 0.907000
17.832001 -0.986000 -0.367000
32.181999 16.306000 0.321000
8.253000 -0.507000 -0.060000
17.832001 -0.986000 -0.367000
8.251000 -0.306000 -0.611000
1.000000 1.000000 1.000000
1.000000 1.000000 1.000000
1.000000 1.000000 1.000000
1.000000 1.000000 1.000000
1.000000 1.000000 1.000000
1.000000 1.000000 1.000000
1.000000 1.000000 1.000000
1.000000 1.000000 1.000000
1.000000 1.000000 1.000000
1.000000 1.000000 1.000000
1.000000 1.000000 1.000000
1.000000 1.000000 1.000000
1.000000 1.000000 1.000000
1.000000 1.000000 1.000000
1.000000 1.000000 1.000000
1.000000 1.000000 1.000000
1.000000 1.000000 1.000000
1.000000 1.000000 1.000000
1.000000 1.000000 1.000000
1.000000 1.000000 1.000000
1.000000 1.000000 1.000000
1.000000 1.000000 1.000000
1.000000 1.000000 1.000000
1.000000 1.000000 1.000000
1.000000 1.000000 1.000000
1.000000 1.000000 1.000000
1.000000 1.000000 1.000000
1.000000 1.000000 1.000000
1.000000 1.000000 1.000000
1.000000 1.000000 1.000000
1.000000 1.000000 1.000000
1.000000 1.000000 1.000000
1.000000 1.000000 1.000000
1.000000 1.000000 1.000000
1.000000 1.000000 1.000000
1.000000 1.000000 1.000000
1.000000 1.000000 1.000000
1.000000 1.000000 1.000000
1.000000 1.000000 1.000000
1.000000 1.000000 1.000000
1.000000 1.000000 1.000000
1.000000 1.000000 1.000000
1.000000 1.000000 1.000000
1.000000 1.000000 1.000000
1.000000 1.000000 1.000000
1.000000 1.000000 1.000000
1.000000 1.000000 1.000000
1.000000 1.000000 1.000000
1.000000 1.000000 1.000000
1.000000 1.000000 1.000000
1.000000 1.000000 1.000000
1.000000 1.000000 1.000000
1.000000 1.000000 1.000000
1.000000 1.000000 1.000000
1.000000 1.000000 1.000000
1.000000 1.000000 1.000000
1.000000 1.000000 1.000000
1.000000 1.000000 1.000000
1.000000 1.000000 1.000000
1.000000 1.000000 1.000000
8.290000 -2.092000 0.498000
25.299000 -0.360000 1.065000
34.674999 3.175000 1.387000
33.150002 5.096000 1.343000
30.898001 7.989000 1.288000
29.604000 9.777000 1.263000
30.607000 12.235000 1.324000
31.923000 15.337000 1.407000
8.354000 -2.114000 0.445000
31.334999 -4.669000 1.079000
28.368999 1.690000 0.990000
31.580000 7.154000 1.098000
29.783001 9.359000 1.066000
30.482000 11.782000 1.107000
32.060001 15.257000 1.184000
29.070000 -5.228000 0.881000
28.398001 -1.471000 0.640000
34.757000 3.165000 1.003000
31.099001 7.765000 0.938000
29.782000 10.080000 0.924000
30.889000 13.011000 1.130000
31.851000 15.963000 1.188000
38.683998 -1.221000 0.796000
34.763000 3.063000 0.739000
31.615000 7.171000 0.701000
29.584000 9.664000 0.681000
30.945999 13.102000 0.719000
32.047001 15.821000 0.751000
34.912998 2.839000 0.561000
31.403999 7.259000 0.533000
29.566999 9.535000 0.521000
30.577999 12.086000 0.539000
32.081001 15.278000 0.748000
38.292999 2.321000 0.328000
31.422001 7.160000 0.308000
24.407000 7.498000 0.287000
31.000000 11.692000 0.311000
31.606001 14.126000 0.316000
34.951000 2.939000 0.152000
33.311001 4.975000 0.154000
30.737000 8.531000 0.157000
29.834999 10.391000 0.158000
31.631001 14.127000 0.153000
38.493999 2.197000 -0.098000
33.316002 4.868000 -0.060000
30.851000 7.993000 -0.045000
29.778999 10.164000 -0.042000
30.983000 13.198000 -0.060000
32.068001 15.918000 -0.076000
34.756001 3.090000 -0.284000
33.112999 5.108000 -0.264000
30.997000 7.824000 -0.243000
29.587999 9.788000 -0.231000
31.025999 13.393000 -0.268000
32.019001 15.840000 -0.295000
33.362999 22.313999 -0.111000
34.449001 3.767000 -0.522000
31.483999 5.616000 -0.465000
30.948999 8.278000 -0.467000
29.801001 10.171000 -0.455000
30.969000 13.019000 -0.499000
31.954000 15.612000 -0.541000
33.212002 21.041000 -0.346000
33.474998 4.624000 -0.677000
32.409000 6.891000 -0.659000
24.455000 7.575000 -0.463000
30.695999 11.510000 -0.650000
31.422001 14.390000 -0.697000
33.127998 20.841000 -0.343000
26.306999 0.477000 -0.638000
33.168999 4.955000 -0.869000
31.042000 7.681000 -0.819000
29.737000 9.325000 -0.793000
30.546000 12.284000 -0.849000
33.133999 20.625000 -0.813000
33.202999 20.959000 -0.819000
32.313000 5.777000 -1.061000
31.125000 7.659000 -1.032000
29.587999 9.337000 -0.992000
33.133999 20.625000 -0.813000
26.966000 2.641000 -1.002000
21.142000 3.030000 -0.869000
21.058001 4.439000 -1.014000
8.164000 -0.449000 -0.551000
7.963000 -0.598000 -0.387000
8.115000 -0.430000 -0.451000
14.319000 10.487000 -1.019000
8.193000 -0.412000 -0.504000
8.248000 -0.423000 -0.611000
7.832000 -0.574000 -0.429000
10.724000 8.072000 -0.953000
8.169000 -0.463000 -0.551000
7.790000 -0.563000 -0.517000
7.813000 -0.521000 -0.617000
7.881000 -0.532000 -0.676000
7.757000 -0.882000 -0.759000
7.833000 -0.781000 -0.808000
7.819000 -0.569000 -0.804000
7.952000 -0.746000 -0.968000
8.239000 -0.513000 -1.067000
28.398001 -1.471000 0.640000
28.563000 -1.773000 -0.899000
28.417999 -2.088000 -0.538000
40.998001 -5.646000 0.837000
8.211000 -0.606000 -0.113000
32.091000 15.203000 0.566000
28.417999 -2.088000 -0.538000
8.104000 -0.477000 -0.256000
19.979000 -4.299000 0.175000
28.746000 -5.341000 0.652000
28.796000 -5.679000 0.654000
7.824000 -0.691000 -0.474000
7.712000 -0.690000 -0.707000
31.882000 -8.625000 1.116000
24.955999 11.057000 -0.848000
32.622002 -9.734000 -0.885000
47.391998 -16.593000 -0.498000
46.481998 -17.215000 -0.834000
10.217000 -3.534000 0.372000
8.078000 -4.020000 0.192000
43.195999 -22.989000 1.553000
30.684999 12.450000 0.155000
7.639000 -3.972000 0.138000
33.120998 20.749001 -0.614000
30.719000 11.298000 -0.481000
29.790001 10.285000 0.306000
0.000000 0.000000 0.000000
0.000000 0.000000 0.000000
0.000000 0.000000 0.000000
29.666000 10.022000 -0.233000
0.000000 0.000000 0.000000
29.620001 9.779000 0.682000
29.625999 9.855000 -0.795000
29.750000 9.378000 -0.232000
29.737000 9.325000 -0.793000
24.465000 7.454000 -0.153000
30.737000 8.531000 0.157000
30.938000 8.255000 0.695000
30.934000 8.224000 -0.820000
31.158001 7.636000 0.696000
0.000000 0.000000 0.000000
36.798000 7.593000 0.325000
33.078999 6.223000 -0.673000
33.435001 5.911000 -0.681000
33.435001 5.911000 -0.681000
33.112999 5.108000 -0.264000
33.352001 4.715000 -0.874000
26.709000 2.705000 -0.495000
38.089001 2.964000 0.147000
33.334999 27.252001 -1.174000
37.653999 2.514000 -0.779000
28.771999 0.861000 0.646000
26.613001 0.548000 0.613000
69.718002 0.559000 -0.344000
68.746002 -0.228000 0.902000
28.417999 -2.088000 -0.538000
31.979000 15.764000 0.319000
8.230000 -0.636000 -0.060000
28.417999 -2.088000 -0.538000
8.248000 -0.423000 -0.611000
1.000000 1.000000 1.000000
1.000000 1.000000 1.000000
1.000000 1.000000 1.000000
1.000000 1.000000 1.000000
1.000000 1.000000 1.000000
1.000000 1.000000 1.000000
1.000000 1.000000 1.000000
1.000000 1.000000 1.000000
1.000000 1.000000 1.000000
1.000000 1.000000 1.000000
1.000000 1.000000 1.000000
1.000000 1.000000 1.000000
1.000000 1.000000 1.000000
1.000000 1.000000 1.000000
1.000000 1.000000 1.000000
1.000000 1.000000 1.000000
1.000000 1.000000 1.000000
1.000000 1.000000 1.000000
1.000000 1.000000 1.000000
1.000000 1.000000 1.000000
1.000000 1.000000 1.000000
1.000000 1.000000 1.000000
1.000000 1.000000 1.000000
1.000000 1.000000 1.000000
1.000000 1.000000 1.000000
1.000000 1.000000 1.000000
1.000000 1.000000 1.000000
1.000000 1.000000 1.000000
1.000000 1.000000 1.000000
1.000000 1.000000 1.000000
1.000000 1.000000 1.000000
1.000000 1.000000 1.000000
1.000000 1.000000 1.000000
1.000000 1.000000 1.000000
1.000000 1.000000 1.000000
1.000000 1.000000 1.000000
1.000000 1.000000 1.000000
1.000000 1.000000 1.000000
1.000000 1.000000 1.000000
1.000000 1.000000 1.000000
1.000000 1.000000 1.000000
1.000000 1.000000 1.000000
1.000000 1.000000 1.000000
1.000000 1.000000 1.000000
1.000000 1.000000 1.000000
1.000000 1.000000 1.000000
1.000000 1.000000 1.000000
1.000000 1.000000 1.000000
1.000000 1.000000 1.000000
1.000000 1.000000 1.000000
1.000000 1.000000 1.000000
1.000000 1.000000 1.000000
1.000000 1.000000 1.000000
1.000000 1.000000 1.000000
1.000000 1.000000 1.000000
1.000000 1.000000 1.000000
1.000000 1.000000 1.000000
1.000000 1.000000 1.000000
1.000000 1.000000 1.000000
1.000000 1.000000 1.000000
7.849000 -2.246000 0.485000
24.940001 -0.786000 1.053000
34.221001 2.645000 1.370000
32.775002 4.565000 1.328000
30.542000 7.488000 1.272000
29.313999 9.324000 1.249000
30.341000 11.743000 1.309000
31.735001 14.819000 1.393000
7.901000 -2.264000 0.434000
30.875999 -5.147000 1.069000
27.931000 1.181000 0.977000
31.246000 6.615000 1.086000
29.431999 8.895000 1.053000
30.240999 11.309000 1.096000
31.863001 14.736000 1.173000
28.518000 -5.733000 0.871000
27.922001 -1.930000 0.633000
34.307999 2.635000 0.992000
30.797001 7.228000 0.929000
29.481001 9.617000 0.915000
30.660999 12.464000 1.118000
31.562000 15.387000 1.173000
38.313000 -1.752000 0.791000
34.341999 2.538000 0.732000
31.225000 6.671000 0.693000
29.274000 9.208000 0.675000
30.684999 12.596000 0.712000
31.822001 15.278000 0.745000
34.497002 2.315000 0.557000
31.094999 6.726000 0.529000
29.299000 9.043000 0.517000
30.358000 11.560000 0.535000
31.902000 14.704000 0.742000
37.782001 1.636000 0.326000
31.115000 6.629000 0.307000
24.098000 7.074000 0.286000
30.732000 11.207000 0.310000
31.399000 13.564000 0.315000
34.506001 2.410000 0.153000
32.925999 4.443000 0.155000
30.462999 7.993000 0.158000
29.561001 9.880000 0.158000
31.408001 13.556000 0.153000
38.103001 1.515000 -0.095000
32.946999 4.339000 -0.056000
30.563999 7.459000 -0.042000
29.507000 9.710000 -0.039000
30.742001 12.641000 -0.056000
31.864000 15.383000 -0.073000
34.313000 2.562000 -0.277000
32.749001 4.578000 -0.258000
30.632000 7.323000 -0.236000
29.298000 9.336000 -0.225000
30.808001 12.842000 -0.262000
31.811001 15.303000 -0.289000
33.312000 21.827999 -0.108000
34.055000 3.238000 -0.512000
31.420000 5.148000 -0.463000
30.650000 7.736000 -0.458000
29.520000 9.663000 -0.446000
30.712000 12.516000 -0.490000
31.813000 15.174000 -0.534000
33.012001 20.408001 -0.338000
33.098999 4.043000 -0.665000
32.066002 6.346000 -0.648000
24.186001 7.160000 -0.453000
30.427999 11.029000 -0.639000
31.247999 13.956000 -0.688000
32.999001 20.257000 -0.337000
25.777000 0.063000 -0.621000
32.792000 4.426000 -0.855000
30.686001 7.186000 -0.804000
29.424999 8.823000 -0.779000
30.333000 11.813000 -0.838000
32.983002 20.031000 -0.802000
33.069000 20.368999 -0.808000
32.033001 5.260000 -1.047000
30.812000 7.121000 -1.015000
29.330000 8.901000 -0.978000
32.983002 20.031000 -0.802000
26.527000 2.221000 -0.980000
20.799000 2.681000 -0.850000
20.868000 4.092000 -0.999000
8.157000 -0.590000 -0.551000
7.939000 -0.722000 -0.386000
8.138000 -0.572000 -0.453000
14.912000 10.849000 -1.067000
8.185000 -0.554000 -0.504000
8.506000 -0.583000 -0.637000
7.841000 -0.687000 -0.430000
10.543000 7.988000 -0.936000
8.157000 -0.590000 -0.551000
7.773000 -0.672000 -0.516000
7.797000 -0.631000 -0.616000
7.873000 -0.644000 -0.676000
7.745000 -0.992000 -0.759000
7.803000 -0.890000 -0.805000
7.798000 -0.679000 -0.802000
8.346000 -0.901000 -1.028000
8.209000 -0.602000 -1.063000
27.922001 -1.930000 0.633000
8.150000 -0.585000 -0.303000
27.927999 -2.539000 -0.527000
32.720001 -5.183000 0.712000
8.166000 -0.745000 -0.112000
31.882000 14.677000 0.562000
27.927999 -2.539000 -0.527000
28.007000 -2.315000 -0.695000
29.660000 -7.335000 0.303000
28.188000 -5.927000 0.646000
28.247999 -6.172000 0.648000
7.811000 -0.814000 -0.474000
7.698000 -0.799000 -0.706000
31.747999 -9.832000 1.122000
24.672001 10.654000 -0.832000
32.002998 -10.265000 -0.871000
46.640999 -17.408001 -0.492000
45.532001 -18.260000 -0.824000
46.424999 -17.573000 1.573000
42.299999 -24.396999 1.320000
7.176000 -4.051000 0.194000
30.462999 11.916000 0.156000
7.142000 -3.994000 -0.208000
33.058998 20.278999 -0.608000
30.455000 10.769000 -0.472000
29.525000 9.780000 0.305000
0.000000 0.000000 0.000000
0.000000 0.000000 0.000000
0.000000 0.000000 0.000000
29.389999 9.518000 -0.227000
0.000000 0.000000 0.000000
29.351000 9.283000 0.676000
29.333000 9.401000 -0.782000
29.468000 8.883000 -0.226000
29.424999 8.823000 -0.779000
24.139000 7.065000 -0.147000
30.462999 7.993000 0.158000
30.608999 7.757000 0.688000
30.634001 7.683000 -0.806000
30.794001 7.138000 0.689000
0.000000 0.000000 0.000000
36.439999 6.984000 0.324000
32.691002 5.673000 -0.661000
33.058998 5.363000 -0.669000
33.058998 5.363000 -0.669000
32.749001 4.578000 -0.258000
32.985001 4.136000 -0.860000
26.304001 2.289000 -0.484000
37.539001 2.388000 0.148000
33.314999 26.631001 -1.161000
37.391998 1.966000 -0.772000
28.323999 0.359000 0.639000
26.135000 0.087000 0.605000
69.177002 -0.640000 -0.340000
68.206001 -1.405000 0.897000
27.927999 -2.539000 -0.527000
31.792000 15.179000 0.318000
8.216000 -0.778000 -0.060000
27.927999 -2.539000 -0.527000
8.506000 -0.583000 -0.637000
32.509998 4.149000 1.109000
36.339001 -0.895000 -0.557000
19.063999 2.919000 -0.199000
33.854000 0.555000 -0.269000
33.082001 21.497999 1.107000
8.162000 -0.211000 -0.259000
36.702000 -1.288000 -1.212000
38.139999 1.748000 1.500000
35.193001 0.819000 1.010000
13.103000 0.049000 0.248000
13.103000 0.049000 0.248000
19.351999 -0.807000 -1.226000
19.351999 -0.807000 -1.226000
35.743000 -0.636000 0.568000
38.285999 -2.814000 -0.097000
55.848999 -5.088000 -0.236000
13.181000 0.060000 0.340000
38.102001 -3.426000 0.790000
32.353001 18.610001 -0.088000
32.368999 18.780001 0.585000
12.990000 -1.820000 0.248000
33.082001 22.521000 -0.355000
32.890999 17.917999 0.325000
8.837000 6.055000 0.122000
27.305000 14.655000 -0.991000
8.834000 5.994000 -0.780000
32.890999 17.917999 0.325000
8.845000 6.043000 -0.209000
13.985000 9.725000 0.072000
31.921000 16.101999 -0.728000
9.023000 6.202000 -0.081000
31.780001 15.888000 1.411000
31.826000 15.679000 -0.720000
31.929001 15.481000 0.151000
31.875000 15.457000 -0.291000
33.573002 14.759000 0.578000
33.150002 14.684000 -0.303000
33.418999 14.131000 0.574000
33.477001 14.031000 -1.195000
33.723000 13.762000 -1.200000
33.908001 13.652000 -1.205000
34.575001 13.169000 -1.222000
43.908001 15.771000 0.134000
43.782001 15.547000 -0.160000
36.120998 12.334000 -0.329000
36.028000 11.851000 -0.093000
24.697001 7.588000 -1.094000
37.506001 10.512000 -1.529000
31.030001 7.955000 0.938000
30.775000 7.984000 -1.022000
42.709999 10.129000 -0.715000
41.939999 9.600000 -0.133000
32.602001 21.851000 0.805000
30.299000 6.006000 -0.987000
71.176003 12.198000 1.853000
8.171000 0.030000 -0.400000
32.972000 21.636999 0.606000
33.854000 0.555000 -0.269000
9.023000 6.202000 -0.081000
33.138000 22.389999 -0.633000
7.338000 -2.353000 0.470000
23.858000 -1.204000 1.017000
33.770000 2.130000 1.353000
32.389999 4.045000 1.313000
30.186001 7.050000 1.257000
29.004999 8.876000 1.235000
30.075001 11.261000 1.295000
31.457001 14.329000 1.378000
7.440000 -2.399000 0.423000
30.433001 -5.615000 1.059000
27.740999 0.780000 0.971000
30.938000 6.095000 1.075000
29.101999 8.448000 1.041000
29.959000 10.830000 1.084000
31.656000 14.220000 1.162000
27.919001 -6.208000 0.860000
27.448000 -2.374000 0.627000
33.863998 2.066000 0.981000
30.416000 6.786000 0.918000
29.153999 9.157000 0.904000
30.396000 11.969000 1.106000
31.724001 15.037000 1.173000
37.866001 -2.268000 0.785000
33.935001 2.026000 0.725000
30.909000 6.148000 0.687000
29.014000 8.728000 0.669000
30.420000 12.154000 0.706000
31.671000 14.840000 0.740000
34.063000 1.802000 0.552000
30.743999 6.246000 0.524000
28.980000 8.597000 0.513000
30.076000 11.075000 0.531000
31.695000 14.188000 0.736000
37.396999 1.090000 0.325000
30.805000 6.109000 0.306000
23.745001 6.688000 0.285000
30.410999 10.713000 0.308000
31.122000 13.040000 0.313000
34.088001 1.897000 0.154000
32.542999 3.923000 0.156000
30.193001 7.568000 0.158000
29.264000 9.424000 0.159000
30.655001 12.832000 0.155000
37.435001 0.959000 -0.089000
32.560001 3.821000 -0.053000
30.202000 7.021000 -0.039000
29.202000 9.256000 -0.036000
30.469999 12.140000 -0.053000
31.695999 14.936000 -0.070000
33.884998 2.048000 -0.270000
32.366001 4.059000 -0.252000
30.271999 6.886000 -0.230000
28.999001 8.890000 -0.220000
30.532000 12.334000 -0.256000
31.563000 14.758000 -0.283000
33.219002 21.396000 -0.106000
33.639000 2.719000 -0.503000
30.443001 4.548000 -0.440000
30.301001 7.295000 -0.448000
29.233000 9.215000 -0.438000
30.440001 12.017000 -0.481000
31.586000 14.642000 -0.525000
32.955002 19.945999 -0.334000
32.740002 3.530000 -0.654000
30.148001 5.523000 -0.595000
23.778999 6.755000 -0.440000
30.146000 10.499000 -0.628000
30.996000 13.436000 -0.676000
32.859001 19.816999 -0.332000
25.681000 -0.341000 -0.618000
32.415001 3.910000 -0.841000
30.326000 6.751000 -0.790000
29.042999 8.362000 -0.763000
30.118999 11.404000 -0.826000
32.875000 19.614000 -0.794000
32.973999 19.884001 -0.799000
31.698999 4.746000 -1.032000
30.436001 6.682000 -0.997000
28.966999 8.395000 -0.959000
32.875000 19.614000 -0.794000
26.139000 1.817000 -0.962000
20.483000 2.346000 -0.832000
20.535000 3.793000 -0.978000
8.207000 -0.737000 -0.556000
7.917000 -0.858000 -0.385000
8.147000 -0.715000 -0.455000
13.713000 9.946000 -0.963000
8.188000 -0.696000 -0.505000
8.262000 -0.710000 -0.614000
7.810000 -0.820000 -0.429000
10.271000 7.832000 -0.909000
8.207000 -0.737000 -0.556000
7.782000 -0.784000 -0.518000
7.813000 -0.744000 -0.619000
7.893000 -0.758000 -0.680000
7.715000 -1.099000 -0.757000
7.790000 -1.000000 -0.805000
7.810000 -0.791000 -0.805000
8.378000 -1.051000 -1.035000
8.182000 -0.716000 -1.061000
27.448000 -2.374000 0.627000
8.123000 -0.725000 -0.302000
27.434999 -2.973000 -0.515000
32.230999 -5.783000 0.706000
8.162000 -0.887000 -0.113000
31.724001 14.183000 0.558000
27.434999 -2.973000 -0.515000
27.429001 -2.788000 -0.678000
19.737000 -5.497000 0.175000
27.646000 -6.360000 0.639000
27.698000 -6.647000 0.641000
7.801000 -0.937000 -0.474000
7.694000 -0.908000 -0.707000
31.238001 -10.432000 1.114000
30.722000 12.874000 -1.080000
31.378000 -10.610000 -0.856000
45.987000 -18.075001 -0.487000
9.487000 -3.979000 -0.254000
45.679001 -18.282000 1.561000
6.708000 -4.111000 0.144000
6.668000 -4.162000 0.194000
30.198000 11.431000 0.156000
6.616000 -4.088000 -0.237000
32.916000 19.837999 -0.601000
30.170000 10.297000 -0.463000
29.177999 9.311000 0.303000
0.000000 0.000000 0.000000
0.000000 0.000000 0.000000
0.000000 0.000000 0.000000
29.106001 9.073000 -0.222000
0.000000 0.000000 0.000000
29.007000 8.825000 0.669000
28.931999 8.973000 -0.765000
29.129000 8.432000 -0.220000
29.042999 8.362000 -0.763000
23.792000 6.680000 -0.141000
30.193001 7.568000 0.158000
30.254999 7.314000 0.681000
30.283001 7.242000 -0.792000
30.437000 6.704000 0.682000
0.000000 0.000000 0.000000
31.426001 5.567000 0.307000
32.105999 5.104000 -0.643000
32.671001 4.879000 -0.657000
32.671001 4.879000 -0.657000
32.366001 4.059000 -0.252000
32.615002 3.622000 -0.846000
25.886999 1.884000 -0.472000
37.075001 1.832000 0.149000
33.257999 26.159000 -1.150000
37.011002 1.421000 -0.761000
27.870001 0.047000 0.632000
25.489000 -0.275000 0.595000
68.575996 -1.820000 -0.335000
67.571999 -2.561000 0.890000
27.434999 -2.973000 -0.515000
31.541000 14.636000 0.316000
8.174000 -0.929000 -0.059000
27.434999 -2.973000 -0.515000
8.262000 -0.710000 -0.614000
32.139999 3.590000 1.097000
8.245000 -0.150000 -0.211000
19.111000 2.436000 -0.199000
34.103001 0.131000 -0.272000
33.147999 20.879999 1.101000
8.195000 -0.225000 -0.261000
8.118000 -0.235000 -0.357000
62.416000 1.700000 2.320000
34.879002 0.154000 1.003000
12.676000 -0.191000 0.247000
12.676000 -0.191000 0.247000
8.025000 -0.286000 -0.588000
8.025000 -0.286000 -0.588000
35.334000 -1.296000 0.565000
14.769000 -1.326000 -0.106000
55.223999 -6.130000 -0.573000
34.021000 -0.652000 0.983000
37.591999 -4.109000 0.589000
32.261002 18.021000 -0.085000
32.291000 18.129000 0.581000
12.260000 -1.990000 0.187000
33.152000 22.645000 -0.357000
32.987999 17.304001 0.324000
8.506000 5.868000 0.125000
26.882000 13.995000 -0.964000
8.477000 5.815000 -0.809000
32.987999 17.304001 0.324000
8.517000 5.877000 -0.195000
13.746000 9.592000 0.074000
31.742001 15.514000 -0.717000
13.774000 9.611000 -0.147000
31.649000 15.266000 1.397000
31.638000 15.095000 -0.709000
31.745001 14.902000 0.152000
31.712999 14.890000 -0.286000
33.388000 14.180000 0.574000
32.972000 14.051000 -0.297000
33.224998 13.498000 0.570000
33.259998 13.451000 -1.179000
33.509998 13.186000 -1.184000
33.672001 13.006000 -1.188000
34.480999 12.639000 -1.212000
43.735001 15.014000 0.135000
43.730999 14.760000 -0.158000
35.834000 11.611000 -0.322000
35.723999 11.255000 -0.089000
24.365000 7.068000 -1.070000
37.296001 9.825000 -1.512000
38.158001 9.152000 1.102000
30.472000 7.447000 -1.005000
41.793999 9.290000 -0.693000
41.679001 8.854000 -0.130000
32.582001 21.322001 0.800000
30.221001 5.450000 -0.980000
71.061996 11.032000 1.846000
8.185000 0.043000 -0.401000
32.959000 21.114000 0.603000
34.103001 0.131000 -0.272000
13.774000 9.611000 -0.147000
33.234001 22.683001 -0.639000
6.857000 -2.465000 0.456000
23.591999 -1.525000 1.009000
33.361000 1.631000 1.339000
32.030998 3.540000 1.299000
29.827000 6.621000 1.242000
28.679001 8.432000 1.220000
29.804001 10.787000 1.281000
31.181000 13.909000 1.364000
6.964000 -2.501000 0.412000
31.534000 -6.385000 1.093000
26.974001 0.378000 0.950000
30.552999 5.671000 1.062000
23.476999 6.541000 0.878000
29.660999 10.355000 1.072000
31.459999 13.719000 1.152000
27.340000 -6.623000 0.849000
26.936001 -2.799000 0.620000
33.431999 1.618000 0.971000
30.063999 6.361000 0.908000
28.853001 8.714000 0.895000
30.108000 11.475000 1.094000
31.518000 14.637000 1.164000
37.590000 -2.785000 0.781000
33.497002 1.525000 0.718000
30.516001 5.723000 0.680000
28.663000 8.329000 0.662000
30.198999 11.683000 0.700000
31.462999 14.442000 0.734000
33.653000 1.303000 0.548000
30.375000 5.824000 0.520000
28.704000 8.172000 0.509000
29.770000 10.592000 0.527000
31.583000 13.724000 0.732000
36.853001 0.553000 0.323000
30.409000 5.684000 0.304000
23.393000 6.312000 0.283000
30.080000 10.226000 0.307000
30.841000 12.526000 0.312000
33.674000 1.397000 0.154000
32.158001 3.416000 0.156000
29.836000 7.130000 0.159000
28.923000 8.964000 0.160000
30.382999 12.327000 0.156000
36.966999 0.425000 -0.086000
32.157001 3.314000 -0.049000
29.844000 6.593000 -0.035000
28.868999 8.803000 -0.032000
30.184999 11.644000 -0.049000
31.479000 14.532000 -0.067000
33.469002 1.548000 -0.264000
32.007999 3.555000 -0.246000
29.916000 6.459000 -0.223000
28.674999 8.447000 -0.213000
30.245001 11.833000 -0.250000
31.358000 14.363000 -0.278000
33.083000 20.943001 -0.103000
33.238998 2.215000 -0.493000
30.016001 4.147000 -0.430000
32.563000 7.459000 -0.495000
28.931000 8.772000 -0.429000
30.150000 11.522000 -0.472000
31.363001 14.241000 -0.517000
32.870998 19.544001 -0.331000
32.341999 3.076000 -0.642000
29.796000 5.120000 -0.584000
23.489000 6.394000 -0.430000
29.851999 10.030000 -0.617000
30.770000 13.051000 -0.667000
32.736000 19.325001 -0.327000
25.232000 -0.691000 -0.604000
32.042000 3.406000 -0.827000
29.955000 6.324000 -0.776000
28.684000 7.918000 -0.748000
29.809999 11.021000 -0.813000
32.716000 19.172001 -0.784000
32.814999 19.438000 -0.790000
30.927000 4.282000 -1.000000
30.066999 6.255000 -0.980000
28.704000 7.977000 -0.944000
32.716000 19.172001 -0.784000
25.695000 1.422000 -0.941000
19.917999 2.059000 -0.802000
20.103001 3.486000 -0.951000
8.205000 -0.893000 -0.558000
7.901000 -1.008000 -0.385000
8.145000 -0.882000 -0.456000
13.822000 10.025000 -0.973000
8.212000 -0.867000 -0.509000
8.603000 -0.889000 -0.649000
7.797000 -0.955000 -0.429000
9.841000 7.577000 -0.867000
8.205000 -0.893000 -0.558000
7.776000 -0.919000 -0.519000
7.793000 -0.878000 -0.618000
7.867000 -0.893000 -0.678000
7.703000 -1.208000 -0.758000
7.777000 -1.110000 -0.806000
7.817000 -0.928000 -0.808000
8.139000 -1.152000 -1.003000
8.261000 -0.853000 -1.015000
26.936001 -2.799000 0.620000
8.108000 -0.877000 -0.302000
26.957001 -3.394000 -0.504000
31.502001 -6.473000 0.697000
8.139000 -1.040000 -0.112000
31.533001 13.684000 0.555000
26.957001 -3.394000 -0.504000
8.063000 -0.909000 -0.256000
29.448999 -9.230000 0.304000
17.297001 -4.348000 0.387000
17.900999 -4.649000 0.394000
7.782000 -1.071000 -0.474000
7.672000 -1.016000 -0.706000
30.497999 -11.370000 1.103000
30.486000 12.494000 -1.066000
47.236000 -17.379999 -1.108000
45.537998 -18.813000 -0.485000
42.448002 -19.309000 -0.773000
45.007999 -18.922001 1.550000
6.237000 -4.223000 0.147000
6.170000 -4.255000 0.195000
29.886000 10.938000 0.157000
6.135000 -4.209000 -0.258000
32.765999 19.398001 -0.593000
29.865000 9.828000 -0.454000
28.905001 8.875000 0.302000
0.000000 0.000000 0.000000
0.000000 0.000000 0.000000
0.000000 0.000000 0.000000
28.784000 8.627000 -0.216000
0.000000 0.000000 0.000000
28.684000 8.384000 0.662000
28.639000 8.539000 -0.752000
28.826000 8.001000 -0.214000
28.684000 7.918000 -0.748000
23.462000 6.309000 -0.135000
29.836000 7.130000 0.159000
29.896999 6.881000 0.674000
29.931999 6.812000 -0.778000
30.070000 6.277000 0.675000
0.000000 0.000000 0.000000
31.290001 5.088000 0.307000
31.691999 4.681000 -0.631000
32.042999 4.425000 -0.639000
32.042999 4.425000 -0.639000
32.007999 3.555000 -0.246000
32.230000 3.171000 -0.832000
25.458000 1.491000 -0.460000
36.644001 1.291000 0.150000
33.231998 25.636000 -1.139000
36.589001 0.887000 -0.750000
27.408001 -0.341000 0.625000
25.235001 -0.708000 0.592000
68.171997 -2.774000 -0.332000
67.204002 -3.499000 0.887000
26.957001 -3.394000 -0.504000
31.334000 14.242000 0.315000
8.165000 -1.098000 -0.059000
26.957001 -3.394000 -0.504000
8.603000 -0.889000 -0.649000
31.719999 2.990000 1.084000
8.239000 -0.189000 -0.210000
19.132000 1.952000 -0.198000
34.229000 -0.353000 -0.274000
33.034000 20.225000 1.273000
8.194000 -0.264000 -0.261000
8.087000 -0.260000 -0.355000
62.002998 0.422000 2.306000
34.404999 -0.497000 0.992000
12.203000 -0.451000 0.245000
12.203000 -0.451000 0.245000
7.997000 -0.298000 -0.586000
7.997000 -0.298000 -0.586000
34.789001 -1.988000 0.559000
14.321000 -1.604000 -0.097000
54.560001 -7.274000 -0.566000
33.445000 -1.378000 0.971000
54.505001 -7.340000 1.044000
29.156000 15.753000 -0.055000
32.191002 17.479000 0.577000
12.093000 -2.316000 0.187000
13.520000 9.309000 -0.223000
32.834999 16.636999 0.323000
33.441002 23.650999 0.831000
26.677999 13.412000 -0.947000
12.200000 8.519000 -1.167000
32.834999 16.636999 0.323000
33.178001 23.417000 -0.646000
33.410999 23.600000 0.336000
31.582001 14.886000 -0.706000
33.070999 23.438000 -0.363000
30.412001 14.084000 1.342000
31.481001 14.477000 -0.699000
31.579000 14.282000 0.153000
31.496000 14.248000 -0.279000
33.140999 13.525000 0.569000
32.821999 13.382000 -0.291000
33.041000 12.822000 0.565000
33.033001 12.819000 -1.162000
33.257000 12.546000 -1.166000
33.521999 12.346000 -1.173000
34.053001 11.938000 -1.187000
43.555000 14.191000 0.135000
43.481998 13.844000 -0.154000
35.556999 10.846000 -0.316000
35.509998 10.517000 -0.086000
24.243000 6.662000 -1.059000
37.048000 9.078000 -1.493000
30.421000 6.737000 0.918000
30.115000 6.860000 -0.987000
41.488998 8.541000 -0.683000
41.313000 8.033000 -0.126000
32.985001 20.997999 0.803000
29.862000 4.902000 -0.963000
70.722000 9.618000 1.834000
8.167000 0.030000 -0.400000
32.868999 20.478001 0.599000
34.229000 -0.353000 -0.274000
33.070999 23.438000 -0.363000
13.500000 9.266000 -0.320000
6.399000 -2.566000 0.442000
23.073999 -1.893000 0.992000
32.950001 1.196000 1.324000
31.659000 3.097000 1.285000
29.472000 6.202000 1.228000
28.340000 7.994000 1.205000
29.490000 10.412000 1.267000
30.948999 13.515000 1.351000
6.489000 -2.609000 0.401000
30.981001 -6.781000 1.080000
26.492001 -0.003000 0.937000
30.158001 5.256000 1.050000
23.107000 6.166000 0.866000
29.391001 10.003000 1.062000
31.155001 13.296000 1.139000
26.830000 -6.993000 0.840000
26.445999 -3.168000 0.613000
33.018002 1.130000 0.961000
29.707001 5.945000 0.898000
28.528000 8.275000 0.885000
29.861000 11.114000 1.084000
31.302999 14.240000 1.154000
37.008999 -3.386000 0.773000
33.082001 1.039000 0.711000
30.134001 5.309000 0.673000
28.334000 7.897000 0.655000
29.865000 11.285000 0.693000
31.246000 14.047000 0.729000
33.236000 0.816000 0.543000
30.011000 5.363000 0.515000
28.372999 7.741000 0.504000
29.496000 10.233000 0.523000
31.448999 13.315000 0.727000
36.449001 0.032000 0.322000
30.020000 5.271000 0.303000
23.054001 5.950000 0.282000
29.780001 9.761000 0.306000
30.600000 12.149000 0.311000
33.242001 0.908000 0.155000
31.737000 3.018000 0.157000
29.500000 6.707000 0.160000
28.679001 8.593000 0.160000
30.124001 11.947000 0.156000
36.601002 -0.039000 -0.083000
31.761000 2.921000 -0.046000
29.503000 6.178000 -0.032000
28.534000 8.359000 -0.028000
29.933001 11.278000 -0.046000
31.267000 14.138000 -0.065000
33.048000 1.060000 -0.258000
31.576000 3.155000 -0.239000
29.549999 6.041000 -0.217000
28.339001 8.010000 -0.207000
29.990999 11.463000 -0.245000
31.115999 13.957000 -0.272000
32.918999 20.479000 -0.100000
32.839001 1.774000 -0.484000
29.604000 3.759000 -0.421000
32.237000 7.013000 -0.487000
28.582001 8.324000 -0.419000
29.891001 11.155000 -0.464000
31.163000 13.856000 -0.510000
32.750999 19.125999 -0.326000
31.910999 2.681000 -0.630000
29.375999 4.715000 -0.571000
23.139000 6.026000 -0.419000
29.523001 9.611000 -0.605000
30.533001 12.669000 -0.657000
32.500000 18.774000 -0.321000
24.660999 -1.024000 -0.586000
31.666000 2.965000 -0.814000
29.587000 5.908000 -0.761000
28.415001 7.605000 -0.737000
29.542000 10.659000 -0.801000
32.537998 18.725000 -0.774000
32.664001 19.003000 -0.781000
30.313999 3.858000 -0.974000
29.697001 5.838000 -0.963000
23.281000 6.229000 -0.725000
32.537998 18.725000 -0.774000
25.292000 1.041000 -0.922000
19.468000 1.796000 -0.778000
19.708000 3.195000 -0.926000
8.209000 -1.064000 -0.560000
7.909000 -1.160000 -0.387000
8.138000 -1.037000 -0.457000
14.056000 10.228000 -0.994000
8.232000 -1.026000 -0.512000
8.619000 -1.082000 -0.653000
7.809000 -1.107000 -0.431000
9.509000 7.368000 -0.833000
8.209000 -1.064000 -0.560000
7.765000 -1.067000 -0.519000
7.787000 -1.026000 -0.620000
7.856000 -1.042000 -0.679000
7.692000 -1.331000 -0.759000
7.747000 -1.255000 -0.805000
7.868000 -1.073000 -0.816000
8.153000 -1.298000 -1.008000
8.014000 -0.972000 -0.945000
26.445999 -3.168000 0.613000
8.169000 -1.053000 -0.307000
8.064000 -1.117000 -0.205000
30.927999 -6.964000 0.690000
8.067000 -1.212000 -0.111000
31.143000 13.224000 0.549000
8.064000 -1.117000 -0.205000
8.097000 -1.081000 -0.259000
29.110001 -10.036000 0.304000
17.169001 -4.662000 0.387000
17.205999 -4.847000 0.388000
7.778000 -1.220000 -0.476000
7.675000 -1.164000 -0.709000
29.870001 -11.999000 1.093000
30.238001 12.116000 -1.052000
46.452000 -18.093000 -1.095000
44.526001 -19.386000 -0.475000
41.705002 -19.927999 -0.764000
44.334999 -19.546000 1.540000
5.765000 -4.326000 0.149000
5.681000 -4.342000 0.195000
29.608999 10.573000 0.158000
18.073999 -14.322000 -0.685000
32.604000 18.959000 -0.586000
29.573000 9.373000 -0.445000
28.568001 8.478000 0.301000
0.000000 0.000000 0.000000
0.000000 0.000000 0.000000
0.000000 0.000000 0.000000
28.448999 8.186000 -0.209000
0.000000 0.000000 0.000000
28.323000 7.990000 0.655000
